# .PCD v0.7 - Point Cloud Data file format
VERSION 0.7
FIELDS x y z
SIZE 4 4 4
TYPE F F F
COUNT 1 1 1
WIDTH 1776
HEIGHT 1
VIEWPOINT 0 0 0 1 0 0 0
POINTS 1776
DATA ascii
0.36000001 7.8990002 0.287
0.34900001 7.9400001 0.28799999
0.32499999 7.9689999 0.28799999
0.30000001 7.96 0.28799999
0.27599999 8.0050001 0.28799999
0.259 8.316 0.29100001
0.23899999 8.5539999 0.294
0.208 8.3290005 0.29100001
0.19400001 8.2930002 0.29100001
-0.28400001 10.316 0.31200001
-0.322 10.483 0.31299999
-0.36000001 10.633 0.315
-0.62599999 12.157 0.33000001
-0.67699999 12.383 0.333
-0.96499997 13.956 0.34900001
-1.3609999 16.271999 0.37200001
-1.4400001 16.587 0.37599999
-1.559 17.309 0.38299999
-1.807 18.726 0.39700001
2.408 7.54 0.23199999
2.3800001 7.4920001 0.23199999
2.339 7.526 0.23199999
2.3759999 7.73 0.23199999
2.3239999 7.6459999 0.23199999
2.303 7.6630001 0.23199999
2.277 7.664 0.23199999
2.257 7.6409998 0.23199999
2.3670001 8.1049995 0.233
2.4230001 8.3900003 0.234
2.4189999 8.4729996 0.235
2.4289999 8.6090002 0.235
2.4460001 8.7749996 0.236
2.4219999 8.7939997 0.236
2.402 8.8280001 0.236
2.388 8.8319998 0.236
2.355 8.8199997 0.236
2.3210001 8.8050003 0.236
2.2939999 8.816 0.236
2.2609999 8.802 0.235
2.2290001 8.7910004 0.235
2.198 8.7849998 0.235
2.1989999 8.8479996 0.236
2.1849999 8.9090004 0.236
2.177 9 0.236
2.1600001 9.0530005 0.236
2.1270001 9.0380001 0.236
2.0899999 9.0120001 0.236
1.601 8.3249998 0.234
1.577 8.3400002 0.234
1.554 8.3660002 0.234
1.502 8.9300003 0.235
1.473 8.9309998 0.235
1.4579999 8.927 0.235
1.425 8.9040003 0.235
1.399 8.9160004 0.235
1.36 8.8529997 0.235
1.018 8.835 0.235
0.82099998 7.368 0.23
0.80199999 7.4039998 0.23
0.77700001 7.395 0.23
0.75099999 7.3709998 0.23
0.72899997 7.3850002 0.23
0.67900002 7.2259998 0.23
0.653 7.198 0.23
0.63099998 7.204 0.23
0.60699999 7.1960001 0.23
0.433 7.7090001 0.23100001
0.40799999 7.698 0.23100001
0.36500001 7.809 0.23100001
0.34200001 7.8280001 0.23199999
0.31200001 7.7049999 0.23100001
0.292 7.8119998 0.23100001
0.28400001 7.9359999 0.23199999
0.193 8.2650003 0.233
-0.32300001 10.432 0.23999999
2.3959999 7.526 0.19400001
2.4230001 7.6539998 0.19400001
2.4030001 7.6729999 0.19400001
2.3870001 7.7090001 0.19400001
2.6949999 8.8140001 0.192
2.3469999 7.7509999 0.19400001
2.671 8.9359999 0.192
2.641 8.9390001 0.192
2.6300001 8.9540005 0.192
2.592 8.9280005 0.192
2.47 8.9230003 0.192
2.447 8.9499998 0.192
2.438 8.9709997 0.192
2.4030001 8.9560003 0.192
2.372 8.9519997 0.192
2.3399999 8.9449997 0.192
2.3069999 8.9309998 0.192
2.277 8.9329996 0.192
2.2490001 8.9399996 0.192
2.2309999 8.9259996 0.192
2.217 8.9890003 0.192
2.2060001 9.0699997 0.192
2.1889999 9.1239996 0.192
2.1800001 9.2139997 0.192
2.1530001 9.2309999 0.192
2.0780001 9.0349998 0.192
1.7 8.474 0.193
1.665 8.4379997 0.193
1.635 8.4209995 0.193
1.608 8.4239998 0.193
1.582 8.4329996 0.193
1.572 8.4519997 0.193
1.5470001 8.4680004 0.193
1.529 8.5179996 0.193
1.51 9.0819998 0.192
1.493 9.0640001 0.192
1.464 9.0670004 0.192
1.433 9.052 0.192
1.4069999 9.0740004 0.192
1.37 9.0249996 0.192
1.267 9.0100002 0.192
1.118 8.9689999 0.192
1.0930001 8.9980001 0.192
1.018 8.967 0.192
0.99199998 8.9940004 0.192
0.96100003 8.9709997 0.192
0.93400002 8.9820004 0.192
0.903 8.9549999 0.193
0.903 9.1059999 0.192
0.70899999 7.3319998 0.19499999
0.639 7.323 0.19499999
0.63499999 7.566 0.19499999
0.59799999 7.3979998 0.19499999
0.41100001 7.8639998 0.19400001
0.36300001 7.8979998 0.19400001
0.31400001 7.9380002 0.19400001
0.28799999 7.9050002 0.19400001
0.28099999 8.0640001 0.19400001
0.25799999 8.158 0.19400001
0.245 8.6549997 0.193
0.213 8.4379997 0.193
0.186 8.3879995 0.193
0.15899999 8.3950005 0.193
0.134 8.4890003 0.193
0.122 8.6099997 0.193
-0.28299999 10.409 0.19
-0.31799999 10.484 0.19
-0.35600001 10.631 0.19
-0.62400001 12.195 0.18799999
-0.67199999 12.372 0.18700001
2.4200001 7.5669999 0.14300001
2.3870001 7.5469999 0.14399999
2.358 7.6199999 0.14300001
2.3469999 7.625 0.14300001
2.71 8.8900003 0.133
2.6819999 8.901 0.133
2.6500001 8.8940001 0.133
2.4790001 8.8800001 0.133
2.444 8.8610001 0.134
2.4260001 8.9029999 0.133
2.3989999 8.915 0.133
2.3640001 8.8970003 0.133
2.348 8.8929996 0.133
2.3150001 8.8830004 0.134
2.286 8.8830004 0.134
2.2520001 8.8669996 0.134
2.224 8.8739996 0.134
2.2049999 8.915 0.134
2.197 9.0039997 0.133
2.1949999 9.0559998 0.133
2.148 9.1120005 0.132
2.1719999 9.3450003 0.13
1.688 8.4040003 0.138
1.676 8.4130001 0.138
1.643 8.3830004 0.139
1.6160001 8.3879995 0.139
1.59 8.3909998 0.139
1.564 8.3999996 0.139
1.536 8.3970003 0.139
1.513 8.4169998 0.139
1.511 8.9639997 0.134
1.489 9.0059996 0.134
1.459 8.9989996 0.134
1.431 9.007 0.134
1.399 8.9899998 0.134
1.355 8.7959995 0.13600001
1.114 9.007 0.134
1.003 8.9160004 0.13500001
0.97399998 8.9169998 0.13500001
0.94300002 8.8940001 0.13500001
0.917 8.9090004 0.13500001
0.889 8.9139996 0.13500001
0.662 7.2600002 0.149
0.63700002 7.2459998 0.149
0.61699998 7.2779999 0.148
0.405 7.8060002 0.14399999
0.37 7.8369999 0.14399999
0.31900001 7.7919998 0.145
0.29800001 7.888 0.14399999
0.27500001 7.9349999 0.14300001
0.25299999 8.0360003 0.14300001
-0.33500001 10.439 0.124
-0.634 12.129 0.11
-0.66000003 12.276 0.109
-0.963 13.887 0.096000001
-1.022 14.105 0.093999997
-1.408 16.292999 0.077
-1.716 17.922001 0.064000003
2.484 7.7639999 0.090999998
2.392 7.5560002 0.093999997
2.3800001 7.6040001 0.093999997
2.743 8.8730001 0.075000003
2.484 8.0719995 0.086999997
2.6830001 8.8249998 0.075999998
2.658 8.8450003 0.075999998
2.6340001 8.8640003 0.075999998
2.5969999 8.842 0.075999998
2.5699999 8.8520002 0.075999998
2.5420001 8.8599997 0.075999998
2.454 8.8140001 0.077
2.4349999 8.8549995 0.077
2.411 8.8760004 0.077
2.381 8.8739996 0.077
2.3510001 8.8730001 0.077
2.3340001 8.8649998 0.077
2.3010001 8.8529997 0.077
2.2690001 8.8430004 0.078000002
2.237 8.8330002 0.078000002
2.2079999 8.8360004 0.078000002
2.194 8.8990002 0.077
2.1830001 8.9759998 0.075999998
2.1800001 9.0279999 0.075000003
2.174 9.1300001 0.074000001
2.151 9.158 0.074000001
2.0680001 8.9309998 0.077
2.1259999 9.3179998 0.071999997
1.691 8.434 0.085000001
1.652 8.3739996 0.086000003
1.632 8.3389997 0.086000003
1.605 8.342 0.086000003
1.575 8.3260002 0.086999997
1.556 8.3699999 0.086000003
1.531 8.3830004 0.086000003
1.4910001 8.3109999 0.086999997
1.506 8.9680004 0.078000002
1.479 8.9820004 0.078000002
1.448 8.9689999 0.078000002
1.42 8.9759998 0.078000002
1.396 9.0100002 0.078000002
1.374 8.9549999 0.079000004
1.176 8.8719997 0.079999998
1.146 8.8579998 0.079999998
1.012 8.9160004 0.079999998
0.98100001 8.8970003 0.079999998
0.96600002 8.8830004 0.079999998
0.93800002 8.8920002 0.079999998
0.90700001 8.8610001 0.081
0.86400002 8.7069998 0.082999997
0.64999998 7.1960001 0.104
0.634 7.1360002 0.105
0.62 7.2410002 0.104
0.40099999 7.6690001 0.097999997
0.37 7.783 0.096000001
0.347 7.8400002 0.096000001
0.324 7.8709998 0.094999999
0.29300001 7.7059999 0.097000003
0.278 7.987 0.093999997
0.25400001 8.0299997 0.093000002
0.243 8.5799999 0.085000001
0.22499999 8.3859997 0.088
0.198 8.3710003 0.088
0.171 8.3100004 0.089000002
-0.28099999 10.311 0.061000001
-0.352 10.501 0.057999998
-0.66500002 12.233 0.034000002
-0.713 12.399 0.030999999
-0.95300001 13.852 0.011
-1.011 14.045 0.0080000004
2.427 7.5489998 0.039000001
2.398 7.54 0.039000001
2.388 7.5890002 0.037999999
2.766 8.875 0.0099999998
2.74 8.8870001 0.0099999998
2.4189999 7.9439998 0.030999999
2.6719999 8.9160004 0.0099999998
2.4860001 8.901 0.011
2.4679999 8.8920002 0.012
2.448 8.9280005 0.011
2.418 8.9280005 0.011
2.3889999 8.9320002 0.011
2.355 8.9200001 0.012
2.3239999 8.9160004 0.012
2.293 8.9099998 0.012
2.2609999 8.9029999 0.012
2.2460001 8.9029999 0.013
2.2219999 8.9250002 0.012
2.214 9.0120001 0.011
2.1960001 9.0629997 0.0099999998
2.187 9.1499996 0.0080000004
2.1589999 9.1569996 0.0080000004
2.0910001 8.9980001 0.011
2.112 9.151 0.0080000004
2.0580001 9.8219995 -0.0049999999
2.0250001 9.8190002 -0.0049999999
1.9910001 9.8079996 -0.0049999999
1.9579999 9.8059998 -0.0049999999
1.645 8.3940001 0.026000001
1.622 8.415 0.025
1.586 8.3690004 0.026000001
1.576 8.3889999 0.026000001
1.5470001 8.3800001 0.026000001
1.527 8.4189997 0.026000001
1.5190001 9.0089998 0.014
1.51 9.0450001 0.013
1.48 9.0360003 0.013
1.449 9.0240002 0.013
1.419 9.0229998 0.014
1.364 8.8540001 0.017000001
1.006 8.9460001 0.016000001
0.97799999 8.9490004 0.016000001
0.94700003 8.9300003 0.017000001
0.90399998 8.7860003 0.02
0.89700001 8.8590002 0.017999999
0.68400002 7.2540002 0.052000001
0.66299999 7.27 0.052000001
0.63599998 7.23 0.052999999
0.61699998 7.2719998 0.052000001
0.68800002 10.056 -0.0060000001
0.65700001 10.06 -0.0060000001
0.44499999 7.8600001 0.039999999
0.417 7.7909999 0.041999999
0.39300001 7.7979999 0.041000001
0.37 7.8410001 0.041000001
0.34799999 7.8920002 0.039000001
0.324 7.9039998 0.039000001
0.31 7.8779998 0.039999999
0.287 7.9289999 0.039000001
0.26699999 8.0480003 0.035999998
-0.35499999 10.532 -0.016000001
-0.65899998 12.243 -0.052000001
-0.70599997 12.407 -0.055
-1.003 16.846001 -0.149
-1.081 16.829 -0.149
-1.135 16.84 -0.149
-0.99000001 13.964 -0.088
-1.382 16.285999 -0.138
-1.4529999 16.511999 -0.142
-1.571 17.253 -0.15800001
-1.7690001 18.17 -0.178
-1.86 16.646999 -0.146
-1.9119999 16.632999 -0.146
-1.967 16.653999 -0.147
-2.0190001 16.643999 -0.146
2.438 7.5749998 -0.003
2.4170001 7.5939999 -0.003
2.382 7.6079998 -0.003
2.757 8.9169998 -0.039000001
2.444 7.9840002 -0.013
2.688 8.8900003 -0.037
2.6659999 8.9189997 -0.037999999
2.631 8.9029999 -0.037
2.602 8.9090004 -0.037
2.4630001 8.8990002 -0.035999998
2.438 8.9180002 -0.035999998
2.4170001 8.9510002 -0.037
2.3959999 8.9289999 -0.035999998
2.365 8.9230003 -0.035999998
2.336 8.927 -0.035999998
2.3010001 8.9090004 -0.035
2.2750001 8.9219999 -0.035
2.24 8.9040003 -0.035
2.2160001 8.9239998 -0.035
2.2149999 8.9840002 -0.037
2.207 9.073 -0.039000001
2.1700001 9.1719999 -0.041000001
2.1819999 9.3579998 -0.046
2.108 9.1680002 -0.041000001
1.819 8.5810003 -0.024
1.793 8.5900002 -0.024
1.766 8.5959997 -0.024
1.7359999 8.5880003 -0.024
1.711 8.5319996 -0.022
1.6720001 8.474 -0.02
1.646 8.4829998 -0.021
1.6160001 8.467 -0.02
1.591 8.4820004 -0.02
1.5650001 8.4890003 -0.02
1.549 8.5559998 -0.022
1.538 8.5749998 -0.022
1.5140001 8.5930004 -0.023
1.488 8.6059999 -0.023
1.467 8.6459999 -0.024
1.443 8.6700001 -0.024
1.414 8.665 -0.024
1.388 8.6730003 -0.024
1.427 9.0190001 -0.033
1.4299999 9.2270002 -0.039000001
1.391 9.1660004 -0.037
1.017 8.9580002 -0.029999999
0.98799998 8.9549999 -0.029999999
0.95999998 8.9619999 -0.029999999
0.92900002 8.9370003 -0.029999999
0.921 9.1470003 -0.035
0.69999999 7.2319999 0.015
0.65799999 7.276 0.014
0.62400001 7.1529999 0.017999999
0.61199999 7.2779999 0.014
0.65899998 10.033 -0.057
0.62699997 10.024 -0.057
0.56999999 9.5740004 -0.045000002
0.537 9.5240002 -0.044
0.40599999 7.7709999 0.0020000001
0.36199999 7.8720002 -0.001
0.338 7.8909998 -0.001
0.31799999 8.0349998 -0.0049999999
0.28600001 7.8369999 0
0.26699999 8.0209999 -0.0049999999
0.25600001 8.0900002 -0.0060000001
0.18799999 8.5019999 -0.017000001
0.15899999 8.3800001 -0.014
-0.31799999 10.472 -0.068000004
-0.35499999 10.591 -0.071999997
-0.64099997 12.154 -0.113
-0.671 12.354 -0.118
-0.977 16.841999 -0.235
-1.028 16.805 -0.234
-1.08 16.794001 -0.234
-1.135 16.815001 -0.235
-1.003 14.248 -0.168
-1.046 14.233 -0.167
-1.448 16.455 -0.226
-1.678 17.763 -0.26100001
-1.743 18.145 -0.271
-1.868 16.707001 -0.234
-1.916 16.660999 -0.233
-1.941 16.648001 -0.23199999
-2.029 16.934 -0.23999999
2.3889999 7.4720001 -0.046999998
2.743 8.8529997 -0.092
2.7679999 9.0310001 -0.097999997
2.677 8.7849998 -0.090000004
2.645 8.8800001 -0.092
2.473 8.8590002 -0.090000004
2.4489999 8.8800001 -0.090000004
2.421 8.8900003 -0.090999998
2.3940001 8.8999996 -0.090999998
2.358 8.8760004 -0.090000004
2.3269999 8.8719997 -0.089000002
2.2980001 8.875 -0.089000002
2.28 8.8649998 -0.089000002
2.2520001 8.8690004 -0.088
2.22 8.8620005 -0.088
2.2030001 8.9119997 -0.089000002
2.191 8.9840002 -0.092
2.1819999 9.0670004 -0.093999997
2.142 9.0930004 -0.094999999
2.161 9.3000002 -0.101
1.834 8.5089998 -0.074000001
1.823 8.5190001 -0.074000001
1.79 8.4980001 -0.074000001
1.761 8.4899998 -0.072999999
1.734 8.4949999 -0.072999999
1.706 8.493 -0.072999999
1.666 8.4309998 -0.071000002
1.643 8.4540005 -0.071000002
1.626 8.4390001 -0.071000002
1.597 8.4320002 -0.07
1.572 8.4449997 -0.071000002
1.544 8.4399996 -0.07
1.513 8.4230003 -0.07
1.487 8.4320002 -0.07
1.456 8.4110003 -0.068999998
1.442 8.4090004 -0.068999998
1.415 8.408 -0.068999998
1.387 8.4029999 -0.068000004
1.363 8.4209995 -0.068999998
1.396 8.9720001 -0.086000003
1.403 9.2019997 -0.093999997
1.493 9.8870001 -0.116
0.986 8.9020004 -0.082000002
0.97299999 8.9090004 -0.082000002
0.94300002 8.8940001 -0.082000002
0.93400002 9.0760002 -0.088
0.69400001 7.2459998 -0.028999999
0.66900003 7.224 -0.028000001
0.64600003 7.2259998 -0.028000001
0.62199998 7.204 -0.027000001
0.68000001 9.7399998 -0.108
0.65600002 9.8380003 -0.111
0.65200001 10.002 -0.116
0.58899999 9.5159998 -0.101
0.55599999 9.4750004 -0.098999999
0.39899999 7.7020001 -0.041999999
0.354 7.7750001 -0.045000002
0.345 7.855 -0.046999998
0.322 7.8839998 -0.048
0.29300001 7.7690001 -0.044
0.27399999 7.9180002 -0.048999999
0.252 8.0089998 -0.052000001
0.249 8.7049999 -0.074000001
0.198 8.3260002 -0.061999999
-0.37200001 10.541 -0.133
2.5250001 7.8179998 -0.113
2.4130001 7.5479999 -0.101
2.375 7.5110002 -0.1
2.76 8.8400002 -0.153
2.7460001 8.8920002 -0.155
2.5 8.1820002 -0.126
2.681 8.8789997 -0.154
2.474 8.3299999 -0.131
2.471 8.4180002 -0.134
2.4579999 8.4720001 -0.13600001
2.447 8.5349998 -0.138
2.4349999 8.5970001 -0.14
2.49 8.8990002 -0.152
2.474 8.8970003 -0.152
2.471 8.9969997 -0.156
2.392 8.9259996 -0.152
2.3570001 8.908 -0.15099999
2.329 8.9160004 -0.15099999
2.289 8.8760004 -0.149
2.2780001 8.8900003 -0.15000001
2.2449999 8.8769999 -0.149
2.2219999 8.9040003 -0.15000001
2.21 8.9790001 -0.152
2.1960001 9.0439997 -0.155
2.1830001 9.1149998 -0.15700001
2.1849999 9.2539997 -0.163
2.181 9.3039999 -0.164
2.1170001 9.1549997 -0.15800001
1.8839999 8.5050001 -0.132
1.858 8.5150003 -0.132
1.83 8.5150003 -0.132
1.8150001 8.5100002 -0.131
1.779 8.4720001 -0.13
1.748 8.4519997 -0.12899999
1.716 8.434 -0.12800001
1.692 8.4519997 -0.12800001
1.66 8.427 -0.127
1.631 8.4209995 -0.127
1.614 8.4040003 -0.126
1.592 8.4320002 -0.127
1.561 8.4099998 -0.126
1.534 8.415 -0.126
1.5039999 8.3999996 -0.125
1.479 8.408 -0.125
1.45 8.401 -0.125
1.4349999 8.3920002 -0.124
1.406 8.3800001 -0.124
1.38 8.3870001 -0.124
1.355 8.3990002 -0.124
1.423 9.0129995 -0.148
1.421 9.1940002 -0.155
1.373 9.0690002 -0.15000001
1.012 8.9460001 -0.14300001
0.98199999 8.9329996 -0.142
0.95499998 8.9440002 -0.14300001
0.94800001 9.0109997 -0.145
0.93000001 9.1239996 -0.15000001
0.69300002 7.1849999 -0.074000001
0.67400002 7.2329998 -0.075999998
0.65100002 7.2350001 -0.075999998
0.63 7.257 -0.077
0.65799999 10.075 -0.185
0.63999999 10.044 -0.184
0.57800001 9.5109997 -0.163
0.546 9.4890003 -0.162
0.40200001 7.7350001 -0.094999999
0.35699999 7.8260002 -0.097999997
0.32300001 7.9029999 -0.101
0.29499999 7.8379998 -0.097999997
0.27599999 7.9889998 -0.104
0.25299999 8.0780001 -0.108
0.182 8.3730001 -0.119
0.17299999 8.6239996 -0.12899999
-0.28600001 10.386 -0.197
-0.35600001 10.526 -0.20200001
-0.81900001 16.735001 -0.442
-0.87 16.701 -0.44100001
-0.66900003 12.244 -0.26899999
-0.97299999 16.659 -0.43900001
-1.024 16.646 -0.43900001
-0.96700001 13.99 -0.33700001
-1.2130001 16.712999 -0.442
-1.266 16.715 -0.442
-1.416 16.313999 -0.42699999
-1.6160001 17.334 -0.46700001
-1.71 16.658001 -0.442
-1.73 16.594999 -0.43900001
-1.779 16.562 -0.43799999
-1.829 16.535999 -0.43700001
-1.878 16.509001 -0.43700001
-1.929 16.495001 -0.43599999
-1.982 16.493 -0.43599999
-2.0280001 16.441 -0.435
-2.0799999 16.440001 -0.435
-2.108 16.451 -0.435
-2.1849999 16.634001 -0.44299999
2.4400001 7.5349998 -0.149
2.4059999 7.5120001 -0.147
2.799 8.9619999 -0.214
2.816 9.118 -0.221
2.6619999 8.9180002 -0.20999999
2.4619999 8.3500004 -0.184
2.464 8.4040003 -0.186
2.4560001 8.4750004 -0.189
2.438 8.5109997 -0.19
2.4230001 8.559 -0.192
2.457 8.8900003 -0.207
2.4419999 8.9440002 -0.20900001
2.4749999 9.1210003 -0.21699999
2.0469999 7.6529999 -0.149
2.023 7.6599998 -0.149
1.9960001 7.6560001 -0.148
1.967 7.6409998 -0.147
1.9450001 7.6570001 -0.148
1.913 7.6300001 -0.146
1.9 7.6290002 -0.146
1.873 7.6259999 -0.146
1.849 7.631 -0.146
1.821 7.618 -0.145
1.794 7.6139998 -0.14399999
1.767 7.6040001 -0.14399999
1.738 7.5900002 -0.14300001
1.729 7.6020002 -0.14300001
1.704 7.6040001 -0.14300001
1.677 7.5949998 -0.142
1.648 7.5770001 -0.141
1.624 7.5819998 -0.141
1.597 7.572 -0.141
1.575 7.585 -0.141
1.559 7.5710001 -0.14
1.533 7.5650001 -0.14
1.51 7.573 -0.14
1.485 7.5700002 -0.14
1.4579999 7.5570002 -0.139
1.4349999 7.5679998 -0.139
1.409 7.5580001 -0.138
1.395 7.5489998 -0.138
1.3710001 7.553 -0.138
1.345 7.546 -0.13699999
1.321 7.5479999 -0.13699999
1.296 7.5479999 -0.13699999
1.2690001 7.5320001 -0.13600001
1.244 7.526 -0.13600001
1.219 7.52 -0.13500001
1.207 7.5240002 -0.13500001
1.183 7.5219998 -0.13500001
1.158 7.5180001 -0.13500001
1.132 7.5100002 -0.134
1.112 7.5349998 -0.13500001
1.03 8.868 -0.193
1.002 8.8730001 -0.19400001
0.96799999 8.8199997 -0.191
0.95099998 8.9169998 -0.19499999
0.91299999 8.8319998 -0.191
0.70899999 7.2399998 -0.12
0.685 7.2280002 -0.119
0.66600001 7.2659998 -0.121
0.639 7.2210002 -0.119
0.79400003 10.119 -0.248
0.759 10.088 -0.24600001
0.70499998 9.7869997 -0.233
0.667 9.6920004 -0.228
0.63 9.6040001 -0.22400001
0.60100001 9.618 -0.22499999
0.565 9.5240002 -0.221
0.53299999 9.4940004 -0.219
0.42199999 7.8169999 -0.145
0.39700001 7.8000002 -0.14399999
0.35299999 7.9180002 -0.149
0.32699999 7.8930001 -0.148
0.29800001 7.783 -0.14300001
0.278 7.921 -0.149
0.26800001 7.9840002 -0.152
-0.77499998 16.695999 -0.54000002
-0.82499999 16.631001 -0.537
-0.98100001 16.625 -0.537
-1.035 16.643 -0.53799999
-1.113 16.636 -0.53799999
-0.98299998 13.974 -0.419
-1.221 16.667 -0.54000002
-1.295 16.955999 -0.55299997
-1.329 16.711 -0.542
-1.395 16.233999 -0.52100003
-1.469 16.496 -0.53299999
-1.666 16.634001 -0.54000002
-1.7130001 16.584999 -0.53799999
-1.763 16.554001 -0.537
-1.812 16.521 -0.53600001
-1.836 16.5 -0.53500003
-1.888 16.496 -0.53500003
-1.937 16.466 -0.53399998
-1.984 16.42 -0.53200001
-2.0309999 16.374001 -0.52999997
-2.0869999 16.409 -0.53200001
-2.1429999 16.437 -0.53399998
-2.21 16.746 -0.54799998
2.4419999 7.5289998 -0.19400001
2.4159999 7.527 -0.19400001
2.7709999 8.8879995 -0.264
2.721 8.8249998 -0.25999999
2.664 8.8389997 -0.25999999
2.4560001 8.3299999 -0.233
2.448 8.3509998 -0.234
2.4360001 8.4099998 -0.236
2.4170001 8.4449997 -0.23800001
2.402 8.493 -0.23999999
2.3970001 8.5769997 -0.244
2.45 8.8800001 -0.259
2.3870001 8.7580004 -0.252
2.0569999 7.5809999 -0.191
2.0320001 7.5799999 -0.191
2.006 7.5780001 -0.19
1.978 7.5710001 -0.19
1.9529999 7.5710001 -0.189
1.925 7.5619998 -0.189
1.898 7.552 -0.18799999
1.886 7.5549998 -0.18799999
1.859 7.5500002 -0.18700001
1.83 7.5320001 -0.186
1.8 7.513 -0.185
1.779 7.526 -0.185
1.7539999 7.526 -0.185
1.724 7.5040002 -0.183
1.7130001 7.5120001 -0.184
1.687 7.5040002 -0.183
1.66 7.494 -0.182
1.636 7.4970002 -0.182
1.6109999 7.4959998 -0.182
1.584 7.4860001 -0.18099999
1.562 7.4980001 -0.18099999
1.536 7.4920001 -0.18099999
1.521 7.4780002 -0.18000001
1.498 7.4829998 -0.18000001
1.4680001 7.4520001 -0.178
1.4450001 7.4629998 -0.178
1.421 7.4650002 -0.178
1.3940001 7.4460001 -0.177
1.372 7.46 -0.178
1.357 7.447 -0.177
1.332 7.4369998 -0.176
1.308 7.4369998 -0.176
1.2819999 7.4299998 -0.175
1.258 7.4260001 -0.175
1.2359999 7.4380002 -0.175
1.207 7.4120002 -0.17399999
1.196 7.4159999 -0.17399999
1.1720001 7.4120002 -0.17299999
1.146 7.3990002 -0.17299999
1.13 7.4499998 -0.175
1.112 7.4949999 -0.177
1.003 8.9029999 -0.24699999
0.97500002 8.9029999 -0.24600001
0.94700003 8.9040003 -0.24600001
0.90399998 8.757 -0.23899999
0.69700003 7.1420002 -0.15700001
0.69300002 7.223 -0.161
0.66799998 7.1989999 -0.16
0.64399999 7.1869998 -0.15899999
0.82700002 10.058 -0.303
0.79400003 10.045 -0.303
0.70700002 9.4829998 -0.27399999
0.676 9.4790001 -0.27399999
0.64700001 9.4890003 -0.27399999
0.55800003 9.4989996 -0.27399999
0.52700001 9.4820004 -0.27399999
0.42500001 7.776 -0.18799999
0.40099999 7.7930002 -0.189
0.354 7.8530002 -0.191
0.333 7.9359999 -0.19599999
0.301 7.7550001 -0.186
0.28200001 7.902 -0.19400001
0.27200001 7.9980001 -0.199
0.204 8.3319998 -0.215
0.178 8.3369999 -0.215
-0.53299999 16.625999 -0.63200003
-0.745 16.679001 -0.63499999
2.431 7.4650002 -0.241
2.3989999 7.448 -0.23999999
2.7909999 8.8400002 -0.32100001
2.7639999 8.8509998 -0.32100001
2.8110001 9.1000004 -0.336
2.4200001 7.8889999 -0.264
2.665 8.875 -0.32100001
2.4349999 8.3039999 -0.28600001
2.385 8.2290001 -0.28200001
2.3640001 8.2559996 -0.28299999
2.4030001 8.4399996 -0.29300001
2.391 8.4969997 -0.296
2.3740001 8.5380001 -0.29800001
2.053 7.487 -0.236
2.033 7.507 -0.237
2 7.4780002 -0.235
1.976 7.4850001 -0.235
1.96 7.4679999 -0.234
1.934 7.4650002 -0.233
1.906 7.4549999 -0.23199999
1.881 7.4559999 -0.23199999
1.8559999 7.4559999 -0.23199999
1.8279999 7.4419999 -0.23
1.801 7.434 -0.23
1.778 7.4419999 -0.23
1.761 7.421 -0.228
1.737 7.4250002 -0.228
1.712 7.4200001 -0.228
1.686 7.414 -0.227
1.661 7.414 -0.227
1.632 7.3930001 -0.22499999
1.61 7.402 -0.22499999
1.595 7.3889999 -0.22499999
1.572 7.3979998 -0.22499999
1.544 7.3779998 -0.223
1.5190001 7.3769999 -0.223
1.494 7.3740001 -0.223
1.4680001 7.3629999 -0.222
1.446 7.375 -0.222
1.432 7.3639998 -0.221
1.4069999 7.3579998 -0.221
1.3839999 7.3649998 -0.221
1.36 7.3610001 -0.22
1.334 7.3530002 -0.22
1.3099999 7.3499999 -0.219
1.2869999 7.3540001 -0.219
1.27 7.3280001 -0.21799999
1.25 7.3460002 -0.21799999
1.225 7.3379998 -0.21799999
1.201 7.336 -0.21699999
1.176 7.3319998 -0.21699999
1.154 7.3400002 -0.21699999
1.128 7.323 -0.21600001
1.127 7.3959999 -0.22
1.1160001 7.4790001 -0.22499999
1.101 7.5409999 -0.228
1.253 8.9379997 -0.30700001
1.221 8.9160004 -0.30599999
1.193 8.9180002 -0.30599999
1.165 8.9189997 -0.30599999
1.15 8.9130001 -0.30500001
1.12 8.9049997 -0.30500001
1.09 8.8950005 -0.30399999
1.061 8.8900003 -0.303
1.033 8.8850002 -0.303
1.0039999 8.8870001 -0.303
0.977 8.8920002 -0.303
0.99000001 9.1370001 -0.317
0.92799997 8.8330002 -0.29899999
0.699 7.1339998 -0.20200001
0.67400002 7.112 -0.20100001
0.653 7.1220002 -0.20200001
0.63200003 7.138 -0.20200001
0.74699998 8.842 -0.29899999
0.71899998 8.842 -0.29899999
0.69 8.8360004 -0.29800001
0.66100001 8.8190002 -0.29699999
0.63300002 8.8109999 -0.29699999
0.60500002 8.8170004 -0.29699999
0.59100002 8.8140001 -0.29699999
0.56300002 8.8070002 -0.296
0.53500003 8.809 -0.296
0.50800002 8.8210001 -0.29699999
0.421 7.79 -0.23800001
0.39300001 7.7309999 -0.235
0.36199999 7.8390002 -0.241
0.308 7.7210002 -0.234
0.28799999 7.8379998 -0.241
0.26699999 7.9260001 -0.24600001
0.245 8.0089998 -0.25
-0.34599999 10.437 -0.38800001
-0.72100002 16.684999 -0.741
-0.77100003 16.631001 -0.73799998
-0.81999999 16.551001 -0.73400003
-0.64399999 12.091 -0.48199999
-0.69400001 12.316 -0.495
-0.954 16.620001 -0.73799998
-1.0039999 16.583 -0.736
-1.057 16.591 -0.73699999
-1.107 16.562 -0.736
-0.986 14.024 -0.59200001
-1.0369999 14.125 -0.59799999
-1.2970001 16.652 -0.741
-1.248 15.366 -0.66900003
-1.335 15.836 -0.69599998
-1.4299999 16.357 -0.72500002
-1.5190001 16.782 -0.75
-1.6210001 17.308001 -0.77999997
-1.637 16.618 -0.741
-1.686 16.584999 -0.74000001
-1.735 16.554001 -0.73799998
-1.781 16.490999 -0.73500001
-1.8279999 16.438 -0.73199999
-1.882 16.454 -0.73299998
-1.931 16.427999 -0.73199999
-1.982 16.41 -0.73199999
-1.995 16.308001 -0.72600001
-2.05 16.330999 -0.72799999
-2.1040001 16.344 -0.72899997
-2.1889999 16.597 -0.74400002
2.4260001 7.4780002 -0.28400001
2.4070001 7.5009999 -0.285
2.7509999 8.8719997 -0.37200001
2.7880001 9.0970001 -0.38600001
2.628 8.6169996 -0.35499999
2.3729999 8.2390003 -0.32800001
2.358 8.2849998 -0.33000001
2.3610001 8.3439999 -0.33399999
2.234 7.9879999 -0.31099999
2.0940001 7.573 -0.28299999
2.0469999 7.4949999 -0.278
2.02 7.4879999 -0.27700001
2.0020001 7.5159998 -0.27900001
1.97 7.4889998 -0.27599999
1.952 7.4689999 -0.27500001
1.9299999 7.4790001 -0.27500001
1.9 7.4619999 -0.27399999
1.873 7.454 -0.273
1.849 7.4559999 -0.273
1.821 7.4400001 -0.271
1.793 7.4310002 -0.27000001
1.771 7.4380002 -0.27000001
1.756 7.427 -0.27000001
1.7309999 7.427 -0.26899999
1.705 7.4190001 -0.26800001
1.679 7.414 -0.26800001
1.655 7.414 -0.26699999
1.628 7.4029999 -0.266
1.601 7.3909998 -0.26499999
1.5880001 7.3870001 -0.26499999
1.5650001 7.3940001 -0.26499999
1.538 7.3779998 -0.264
1.513 7.375 -0.26300001
1.492 7.3889999 -0.264
1.4630001 7.3660002 -0.26199999
1.4400001 7.3709998 -0.26199999
1.426 7.3629999 -0.26100001
1.4 7.3520002 -0.25999999
1.376 7.349 -0.25999999
1.353 7.3569999 -0.25999999
1.329 7.3530002 -0.25999999
1.3049999 7.3509998 -0.259
1.279 7.3400002 -0.25799999
1.267 7.3400002 -0.25799999
1.242 7.3299999 -0.257
1.219 7.3340001 -0.257
1.196 7.3379998 -0.257
1.17 7.3270001 -0.25600001
1.145 7.3150001 -0.255
1.125 7.3410001 -0.257
1.125 7.421 -0.26199999
1.112 7.4959998 -0.266
1.097 7.559 -0.27000001
1.084 7.6370001 -0.27500001
1.072 7.73 -0.28
1.0599999 7.8260002 -0.28600001
1.044 7.8930001 -0.28999999
1.138 8.9589996 -0.35600001
1.108 8.9510002 -0.35499999
1.08 8.948 -0.35499999
1.05 8.9420004 -0.354
1.021 8.9350004 -0.354
0.99299997 8.9379997 -0.354
0.97899997 8.9359999 -0.35299999
0.93800002 8.8199997 -0.34599999
0.92400002 8.9560003 -0.354
0.69800001 7.151 -0.242
0.67900002 7.1950002 -0.244
0.653 7.1570001 -0.242
0.64300001 7.1700001 -0.243
0.713 8.6289997 -0.333
0.68599999 8.6269999 -0.333
0.65799999 8.6230001 -0.33199999
0.63 8.6090002 -0.331
0.60500002 8.6330004 -0.333
0.57700002 8.6230001 -0.33199999
0.56400001 8.6420002 -0.333
0.53500003 8.6049995 -0.331
0.509 8.625 -0.33199999
0.47999999 8.5869999 -0.329
0.44999999 8.526 -0.32600001
0.389 7.7979999 -0.28
0.35299999 7.8140001 -0.28099999
0.30399999 7.8340001 -0.28200001
0.28200001 7.9000001 -0.28600001
0.259 7.9850001 -0.292
0.236 8.0419998 -0.29499999
0.183 8.6239996 -0.331
0.152 8.3470001 -0.31400001
-0.37799999 10.548 -0.44999999
-0.69800001 12.305 -0.56
-1.005 16.636 -0.82800001
-1.031 16.629 -0.82800001
-1.084 16.646999 -0.829
-1.136 16.634001 -0.829
-0.99000001 13.917 -0.66000003
-1.244 16.676001 -0.83200002
-1.1339999 14.629 -0.70499998
-1.215 15.047 -0.73100001
-1.279 15.52 -0.76099998
-1.365 15.946 -0.787
-1.467 16.514 -0.82300001
-1.572 17.08 -0.85799998
-1.666 17.488001 -0.884
-1.692 16.669001 -0.83399999
-1.719 16.67 -0.83399999
-1.7589999 16.552 -0.82700002
-1.811 16.544001 -0.82700002
-1.862 16.528 -0.82599998
-1.9119999 16.506001 -0.82499999
-1.961 16.481001 -0.824
-2.0090001 16.443001 -0.82200003
-2.0250001 16.358 -0.81699997
-2.0739999 16.34 -0.81599998
-2.168 16.652 -0.83600003
-2.194 16.452999 -0.824
2.428 7.4970002 -0.34
2.385 7.4460001 -0.336
2.737 8.8620005 -0.43599999
2.5050001 8.2069998 -0.38800001
2.3940001 8.026 -0.37400001
2.3789999 8.0240002 -0.37400001
2.355 8.0349998 -0.37400001
2.3150001 7.9910002 -0.37
2.276 7.9520001 -0.36700001
2.253 7.9650002 -0.36700001
2.2190001 7.9390001 -0.36500001
2.069 7.5 -0.333
2.0409999 7.4910002 -0.33199999
2.0209999 7.4619999 -0.33000001
1.9960001 7.4640002 -0.329
1.973 7.4720001 -0.33000001
1.939 7.4400001 -0.32699999
1.9170001 7.448 -0.32699999
1.893 7.4520001 -0.32699999
1.864 7.4390001 -0.32600001
1.851 7.434 -0.32499999
1.825 7.4299998 -0.324
1.799 7.4260001 -0.324
1.77 7.4060001 -0.322
1.748 7.4180002 -0.322
1.721 7.4089999 -0.32100001
1.694 7.395 -0.31999999
1.683 7.402 -0.31999999
1.656 7.3899999 -0.31900001
1.631 7.3909998 -0.31900001
1.608 7.3959999 -0.31900001
1.579 7.3720002 -0.317
1.5549999 7.3730001 -0.31600001
1.5319999 7.3800001 -0.31600001
1.517 7.3639998 -0.315
1.493 7.3670001 -0.315
1.471 7.3759999 -0.315
1.443 7.3590002 -0.31400001
1.42 7.3629999 -0.31400001
1.393 7.3460002 -0.31200001
1.368 7.3429999 -0.31200001
1.357 7.3470001 -0.31200001
1.3329999 7.3470001 -0.31200001
1.307 7.3319998 -0.31
1.285 7.3460002 -0.31099999
1.258 7.3280001 -0.30899999
1.2359999 7.336 -0.31
1.209 7.316 -0.308
1.199 7.3239999 -0.308
1.182 7.3670001 -0.31099999
1.151 7.323 -0.308
1.136 7.3759999 -0.31099999
1.124 7.4549999 -0.317
1.11 7.5170002 -0.32100001
1.094 7.5739999 -0.324
1.09 7.6269999 -0.32800001
1.077 7.7090001 -0.333
1.063 7.7859998 -0.33899999
1.049 7.862 -0.34400001
1.028 7.8969998 -0.34599999
1.003 7.8990002 -0.34599999
0.97500002 7.8759999 -0.34400001
0.96100003 7.862 -0.34299999
0.935 7.8590002 -0.34200001
0.91000003 7.8600001 -0.34200001
0.88499999 7.8600001 -0.34200001
0.86000001 7.8610001 -0.34200001
0.83399999 7.8460002 -0.34099999
0.704 7.1830001 -0.294
0.68099999 7.178 -0.294
0.64499998 7.039 -0.28400001
0.63599998 7.1820002 -0.294
0.64600003 7.8340001 -0.33899999
0.62300003 7.8569999 -0.34
0.60900003 7.8369999 -0.33899999
0.56199998 7.862 -0.34
0.53799999 7.882 -0.34099999
0.396 7.7839999 -0.33399999
0.347 7.7750001 -0.333
0.32699999 7.8909998 -0.34099999
0.30199999 7.8839998 -0.34099999
0.28999999 7.8930001 -0.34099999
0.26699999 7.9260001 -0.34299999
0.244 8.0019999 -0.34900001
-0.31099999 10.378 -0.51200002
-0.382 10.547 -0.52399999
-0.58399999 11.633 -0.59899998
2.5239999 7.7820001 -0.40099999
2.4200001 7.5370002 -0.382
2.71 8.6879997 -0.46900001
2.4030001 7.8699999 -0.405
2.3929999 7.927 -0.40900001
2.3699999 7.9380002 -0.40900001
2.3369999 7.9190001 -0.40700001
2.3239999 7.921 -0.40700001
2.309 7.9640002 -0.40900001
2.277 7.947 -0.40700001
2.2520001 7.954 -0.40700001
2.122 7.5799999 -0.37799999
2.0769999 7.5100002 -0.373
2.053 7.513 -0.37200001
2.039 7.5100002 -0.37200001
2.0090001 7.4889998 -0.37
1.982 7.4860001 -0.36899999
1.959 7.4920001 -0.36899999
1.9299999 7.4790001 -0.368
1.904 7.4710002 -0.366
1.878 7.4699998 -0.366
1.864 7.4629998 -0.36500001
1.834 7.4419999 -0.36300001
1.8099999 7.4450002 -0.36300001
1.783 7.434 -0.36199999
1.7589999 7.4390001 -0.36199999
1.733 7.4330001 -0.361
1.709 7.4359999 -0.361
1.694 7.4229999 -0.359
1.668 7.4169998 -0.359
1.6440001 7.4159999 -0.35800001
1.62 7.4200001 -0.35800001
1.595 7.415 -0.35699999
1.568 7.402 -0.35600001
1.543 7.401 -0.35499999
1.5319999 7.4060001 -0.35600001
1.5039999 7.3850002 -0.354
1.4809999 7.3940001 -0.354
1.455 7.3829999 -0.35299999
1.432 7.3909998 -0.35299999
1.406 7.3759999 -0.352
1.381 7.3740001 -0.35100001
1.37 7.381 -0.35100001
1.346 7.3790002 -0.35100001
1.318 7.3579998 -0.34900001
1.296 7.3639998 -0.34900001
1.27 7.3540001 -0.34799999
1.247 7.3559999 -0.34799999
1.223 7.3559999 -0.34799999
1.2130001 7.3660002 -0.34799999
1.187 7.3520002 -0.347
1.168 7.381 -0.34900001
1.153 7.4400001 -0.35299999
1.135 7.4790001 -0.35600001
1.1210001 7.552 -0.361
1.107 7.6240001 -0.366
1.092 7.6929998 -0.37099999
1.091 7.7719998 -0.377
1.071 7.8109999 -0.37900001
1.048 7.8260002 -0.38
1.024 7.829 -0.38
0.99599999 7.8060002 -0.37799999
0.97100002 7.8099999 -0.37799999
0.94599998 7.803 -0.37799999
0.93300003 7.7979999 -0.377
0.90600002 7.783 -0.37599999
0.88099998 7.7779999 -0.375
0.85799998 7.8010001 -0.377
0.82599998 7.73 -0.37099999
0.78299999 7.5419998 -0.35699999
0.71700001 7.2319999 -0.33399999
0.69400001 7.23 -0.33399999
0.671 7.23 -0.333
0.64899999 7.2360001 -0.33399999
0.64700001 7.789 -0.37400001
0.62099999 7.7690001 -0.373
0.60799998 7.7600002 -0.37200001
0.58200002 7.7360001 -0.37
0.55800003 7.7379999 -0.37
0.53399998 7.7420001 -0.37
0.50800002 7.7290001 -0.36899999
0.486 7.757 -0.37099999
0.463 7.7919998 -0.37400001
0.45199999 7.8210001 -0.37599999
0.42899999 7.8499999 -0.37799999
0.405 7.8670001 -0.37900001
0.354 7.8239999 -0.375
0.33399999 7.9400001 -0.384
0.30899999 7.941 -0.384
0.28 7.8049998 -0.37400001
0.27399999 8.0389996 -0.391
0.25099999 8.0909996 -0.39500001
0.18000001 8.4020004 -0.41800001
0.15700001 8.6540003 -0.43599999
-0.361 10.554 -0.57700002
-0.403 10.786 -0.59399998
-0.417 10.303 -0.55800003
-0.45199999 10.371 -0.56300002
2.4419999 7.4910002 -0.43099999
2.3989999 7.4400001 -0.426
2.1029999 7.4749999 -0.42199999
2.062 7.4190001 -0.41600001
2.0350001 7.414 -0.41499999
2.01 7.4120002 -0.41499999
1.984 7.4109998 -0.414
1.96 7.4130001 -0.414
1.942 7.3930001 -0.412
1.9119999 7.3740001 -0.41
1.887 7.3699999 -0.40900001
1.8609999 7.3670001 -0.40799999
1.842 7.388 -0.41
1.8099999 7.3610001 -0.40700001
1.786 7.3629999 -0.40700001
1.77 7.3439999 -0.405
1.745 7.3439999 -0.40400001
1.722 7.3470001 -0.40400001
1.6950001 7.3369999 -0.403
1.67 7.3369999 -0.40200001
1.643 7.3239999 -0.40099999
1.6210001 7.3309999 -0.40099999
1.6059999 7.3179998 -0.40000001
1.581 7.3140001 -0.39899999
1.557 7.3169999 -0.39899999
1.533 7.3140001 -0.398
1.5089999 7.3169999 -0.398
1.483 7.3060002 -0.39700001
1.459 7.3039999 -0.396
1.4450001 7.2930002 -0.39500001
1.421 7.2919998 -0.39500001
1.398 7.296 -0.39500001
1.375 7.302 -0.39500001
1.348 7.2870002 -0.39300001
1.326 7.2930002 -0.39300001
1.299 7.2779999 -0.39199999
1.278 7.2919998 -0.39300001
1.2640001 7.2779999 -0.391
1.238 7.2659998 -0.38999999
1.216 7.27 -0.38999999
1.191 7.2639999 -0.389
1.168 7.2659998 -0.389
1.147 7.283 -0.38999999
1.1109999 7.585 -0.414
1.091 7.6160002 -0.41600001
0.68099999 7.1570001 -0.375
0.65700001 7.145 -0.37400001
0.64600003 7.1440001 -0.37400001
0.54299998 7.5809999 -0.40799999
0.51899999 7.5819998 -0.40799999
0.51099998 7.6290002 -0.412
0.48699999 7.638 -0.41299999
0.46700001 7.6939998 -0.417
0.44499999 7.7389998 -0.421
0.42300001 7.776 -0.42300001
0.398 7.763 -0.42199999
0.37099999 7.7210002 -0.419
0.34 7.8439999 -0.42899999
0.31799999 7.901 -0.433
0.29100001 7.836 -0.428
0.26699999 7.8670001 -0.43000001
-0.229 9.743 -0.58099997
-0.264 9.9309998 -0.59600002
-0.301 10.118 -0.611
-0.338 10.284 -0.62400001
-0.36000001 10.479 -0.63999999
-0.40099999 10.699 -0.65799999
-0.442 10.91 -0.67500001
-0.486 11.148 -0.69400001
-0.53299999 11.395 -0.71399999
-0.57999998 11.631 -0.73299998
-0.63 11.894 -0.75400001
-0.898 16.667 -1.138
-0.71700001 12.448 -0.79900002
-1.003 16.663 -1.138
-1.0599999 16.731001 -1.1440001
-0.89700001 13.407 -0.87699997
-1.1670001 16.756001 -1.146
-1.1 14.428 -0.95999998
-1.152 14.82 -0.991
-1.232 15.232 -1.025
-1.316 15.673 -1.061
-1.405 16.136999 -1.098
-1.4960001 16.587999 -1.135
-1.612 17.280001 -1.191
-1.7130001 17.761 -1.23
-1.791 16.641001 -1.142
-1.839 16.594999 -1.138
-1.895 16.617001 -1.141
-1.942 16.573 -1.138
-1.957 16.471001 -1.13
-2.006 16.447001 -1.128
-2.085 16.660999 -1.146
2.4389999 7.4629998 -0.47400001
2.418 7.4780002 -0.47499999
2.391 7.5570002 -0.47999999
2.3640001 7.553 -0.479
2.3329999 7.54 -0.477
2.313 7.5149999 -0.47499999
2.286 7.5110002 -0.47400001
2.2650001 7.527 -0.47499999
2.2379999 7.5229998 -0.47400001
2.2119999 7.5219998 -0.47299999
2.1889999 7.5289998 -0.47299999
2.164 7.5320001 -0.47299999
2.1459999 7.5149999 -0.47099999
2.1059999 7.4640002 -0.46599999
2.0739999 7.4380002 -0.463
2.0469999 7.4310002 -0.461
2.0179999 7.4180002 -0.46000001
1.993 7.4159999 -0.45899999
1.965 7.4050002 -0.458
1.9529999 7.4050002 -0.45699999
1.924 7.3909998 -0.456
1.903 7.4029999 -0.456
1.872 7.3779998 -0.45300001
1.849 7.388 -0.454
1.819 7.3649998 -0.45100001
1.794 7.3639998 -0.45100001
1.777 7.342 -0.44800001
1.755 7.3530002 -0.449
1.729 7.3470001 -0.44800001
1.705 7.3449998 -0.447
1.675 7.3210001 -0.44499999
1.655 7.342 -0.44600001
1.627 7.3239999 -0.44400001
1.603 7.3249998 -0.44400001
1.5880001 7.3099999 -0.442
1.5650001 7.3169999 -0.442
1.539 7.3060002 -0.44100001
1.516 7.3109999 -0.44100001
1.493 7.3119998 -0.44
1.466 7.2989998 -0.43900001
1.441 7.2930002 -0.43799999
1.432 7.309 -0.43900001
1.404 7.2820001 -0.43599999
1.382 7.2930002 -0.43700001
1.358 7.2909999 -0.43599999
1.332 7.2779999 -0.435
1.308 7.2800002 -0.435
1.283 7.2680001 -0.433
1.272 7.276 -0.43399999
1.247 7.2639999 -0.433
1.226 7.2779999 -0.433
1.2 7.2659998 -0.43200001
1.175 7.256 -0.43099999
1.154 7.27 -0.43200001
1.14 7.3340001 -0.43700001
1.14 7.4130001 -0.44400001
1.124 7.4619999 -0.44800001
1.097 7.4419999 -0.44600001
1.075 7.4569998 -0.447
1.053 7.4679999 -0.447
1.027 7.454 -0.44600001
1.0039999 7.461 -0.44600001
0.98799998 7.4310002 -0.44299999
0.963 7.4200001 -0.442
0.93800002 7.4109998 -0.44100001
0.91399997 7.4000001 -0.44
0.889 7.395 -0.43900001
0.85900003 7.3340001 -0.43399999
0.83999997 7.3790002 -0.43700001
0.81800002 7.3870001 -0.43799999
0.801 7.3369999 -0.433
0.77200001 7.2779999 -0.428
0.69199997 7.164 -0.41800001
0.66900003 7.1659999 -0.41800001
0.63700002 7.0570002 -0.40799999
0.63499999 7.4390001 -0.44100001
0.61400002 7.4710002 -0.44299999
0.59299999 7.5149999 -0.447
0.57200003 7.54 -0.449
0.55199999 7.5960002 -0.454
0.52899998 7.6230001 -0.456
0.51999998 7.6599998 -0.45899999
0.498 7.697 -0.46200001
0.47600001 7.737 -0.465
0.45100001 7.7319999 -0.465
0.42899999 7.777 -0.46900001
0.40599999 7.7979999 -0.47
0.38 7.7779999 -0.46799999
0.34400001 7.7989998 -0.47
0.29499999 7.7930002 -0.46900001
0.27399999 7.914 -0.47999999
0.252 7.9920001 -0.486
0.228 8.0670004 -0.493
0.21799999 8.1470003 -0.5
0.193 8.1949997 -0.50400001
-0.168 9.4969997 -0.616
-0.20100001 9.6359997 -0.62800002
-0.236 9.809 -0.64200002
-0.273 10.005 -0.65899998
-0.31099999 10.192 -0.67500001
-0.34999999 10.392 -0.69300002
-0.39199999 10.619 -0.71200001
-0.417 10.832 -0.73100001
-0.461 11.059 -0.75099999
-0.50700003 11.301 -0.77100003
-0.55500001 11.546 -0.79299998
-0.60600001 11.811 -0.81599998
-0.91600001 16.632999 -1.2309999
-0.73000002 12.638 -0.88700002
2.428 7.4369998 -0.51800001
2.381 7.4899998 -0.52100003
2.3529999 7.4840002 -0.51999998
2.325 7.4770002 -0.51899999
2.299 7.4759998 -0.51800001
2.2709999 7.4679999 -0.51700002
2.2409999 7.454 -0.51499999
2.224 7.441 -0.51300001
2.1949999 7.4310002 -0.51099998
2.165 7.4130001 -0.509
2.135 7.3959999 -0.50700003
2.1110001 7.401 -0.50599998
2.082 7.3889999 -0.505
2.052 7.3720002 -0.50199997
2.04 7.3730001 -0.50199997
2.013 7.3639998 -0.50099999
1.988 7.3649998 -0.5
1.959 7.3499999 -0.498
1.936 7.3540001 -0.498
1.91 7.349 -0.49700001
1.882 7.3390002 -0.49599999
1.8559999 7.3340001 -0.49399999
1.841 7.3210001 -0.493
1.813 7.3070002 -0.491
1.791 7.3150001 -0.491
1.766 7.3150001 -0.491
1.739 7.303 -0.48899999
1.716 7.3060002 -0.48899999
1.691 7.3060002 -0.48800001
1.675 7.2870002 -0.486
1.646 7.2670002 -0.484
1.624 7.276 -0.484
1.598 7.2659998 -0.48300001
1.574 7.2670002 -0.48300001
1.5470001 7.25 -0.47999999
1.518 7.2259998 -0.47799999
1.511 7.25 -0.47999999
1.4859999 7.243 -0.479
1.464 7.2550001 -0.479
1.439 7.2459998 -0.47799999
1.413 7.2329998 -0.47600001
1.3890001 7.2319999 -0.47600001
1.365 7.23 -0.47499999
1.354 7.2340002 -0.47600001
1.327 7.2189999 -0.47400001
1.303 7.2129998 -0.47299999
1.2819999 7.2249999 -0.47400001
1.257 7.2150002 -0.472
1.235 7.2249999 -0.47299999
1.211 7.2189999 -0.472
1.197 7.2069998 -0.47099999
1.175 7.2129998 -0.47099999
1.16 7.2659998 -0.47499999
0.69300002 7.1269999 -0.45699999
0.66799998 7.1030002 -0.45500001
0.64899999 7.1350002 -0.458
0.53299999 7.5479999 -0.495
0.509 7.552 -0.495
0.46700001 7.6399999 -0.50300002
0.433 7.6820002 -0.50599998
0.41100001 7.7189999 -0.50999999
0.38699999 7.7220001 -0.50999999
0.33899999 7.7350001 -0.51099998
0.31799999 7.8070002 -0.51700002
0.30500001 7.8039999 -0.51700002
0.28200001 7.8369999 -0.51999998
-0.097000003 9.026 -0.62900001
-0.126 9.1429996 -0.63999999
-0.15700001 9.3120003 -0.65499997
-0.189 9.467 -0.66900003
-0.223 9.6429996 -0.68599999
-0.241 9.8079996 -0.70099998
-0.27700001 9.9849997 -0.71700001
-0.31299999 10.171 -0.73400003
-0.352 10.375 -0.75300002
-0.39199999 10.599 -0.77399999
-0.433 10.81 -0.79299998
-0.477 11.042 -0.815
-0.50400001 11.274 -0.83600003
-0.551 11.517 -0.85900003
-0.59899998 11.758 -0.88099998
-0.884 16.555 -1.323
-0.70499998 12.339 -0.935
-0.99000001 16.583 -1.326
-0.81999999 12.948 -0.99199998
-0.85799998 13.235 -1.018
-1.133 16.77 -1.344
-0.986 13.875 -1.0779999
-1.239 16.766001 -1.344
-1.13 14.627 -1.147
-1.212 15.072 -1.189
-1.295 15.503 -1.229
-1.3559999 15.95 -1.27
-1.45 16.447001 -1.317
-1.786 16.669001 -1.34
-1.809 16.629999 -1.337
-1.89 16.888 -1.3609999
-1.943 16.42 -1.319
-1.994 16.41 -1.318
-2.076 16.649 -1.341
2.493 7.6859999 -0.59299999
2.368 7.4580002 -0.56800002
2.3729999 7.5570002 -0.57800001
2.3429999 7.5019999 -0.57200003
2.3099999 7.4790001 -0.56800002
2.2820001 7.4710002 -0.56699997
2.253 7.461 -0.565
2.2219999 7.441 -0.56199998
2.1949999 7.434 -0.56099999
2.171 7.441 -0.56099999
2.152 7.4180002 -0.55800003
2.1229999 7.4039998 -0.55599999
2.1010001 7.4159999 -0.55699998
2.075 7.4130001 -0.55599999
2.0420001 7.3829999 -0.55199999
2.0190001 7.3909998 -0.55199999
1.992 7.3839998 -0.551
1.978 7.3779998 -0.55000001
1.948 7.3569999 -0.54699999
1.9170001 7.3319998 -0.54400003
1.8940001 7.3379998 -0.54400003
1.864 7.3189998 -0.54100001
1.844 7.336 -0.54299998
1.813 7.309 -0.53899997
1.784 7.2379999 -0.53200001
1.7460001 7.1820002 -0.52600002
1.728 7.2069998 -0.528
1.7079999 7.2220001 -0.52899998
1.693 7.2600002 -0.53200001
1.666 7.25 -0.52999997
1.646 7.2649999 -0.53100002
1.622 7.2639999 -0.53100002
1.607 7.2529998 -0.52899998
1.585 7.2620001 -0.52999997
1.563 7.2670002 -0.52999997
1.5369999 7.2600002 -0.52899998
1.512 7.2509999 -0.52700001
1.4809999 7.2189999 -0.523
1.455 7.2020001 -0.52100003
1.45 7.2379999 -0.52499998
1.428 7.2480001 -0.52499998
1.403 7.2410002 -0.52399999
1.377 7.2290001 -0.523
1.3559999 7.2399998 -0.523
1.335 7.2540002 -0.52399999
1.306 7.2220001 -0.52100003
1.296 7.2319999 -0.52100003
1.27 7.2189999 -0.51999998
1.247 7.2210002 -0.51899999
1.224 7.223 -0.51899999
1.201 7.223 -0.51899999
1.176 7.2140002 -0.51800001
1.154 7.2220001 -0.51800001
1.143 7.2259998 -0.51800001
1.1160001 7.1999998 -0.51499999
1.092 7.1929998 -0.514
1.071 7.211 -0.51599997
1.0470001 7.204 -0.51499999
1.024 7.2030001 -0.514
0.99900001 7.191 -0.51300001
0.986 7.1830001 -0.51200002
0.96499997 7.197 -0.51300001
0.94400001 7.2080002 -0.514
0.92199999 7.2189999 -0.514
0.89600003 7.1960001 -0.51200002
0.87400001 7.2030001 -0.51200002
0.85100001 7.1999998 -0.51200002
0.83999997 7.2010002 -0.51200002
0.81800002 7.2140002 -0.51300001
0.79400003 7.2020001 -0.51099998
0.801 7.4920001 -0.54000002
0.74299997 7.152 -0.50599998
0.68699998 7.1550002 -0.50599998
0.68400002 7.382 -0.528
0.63999999 7.1339998 -0.50300002
0.63300002 7.322 -0.52200001
0.61400002 7.382 -0.52700001
0.59200001 7.3990002 -0.52899998
0.57200003 7.441 -0.53299999
0.56300002 7.4879999 -0.537
0.54100001 7.5029998 -0.53899997
0.51899999 7.527 -0.54100001
0.49700001 7.5539999 -0.54299998
0.47400001 7.5739999 -0.54500002
0.45199999 7.599 -0.54699999
0.42899999 7.6220002 -0.54900002
0.40599999 7.645 -0.55199999
0.396 7.684 -0.55500001
0.35100001 7.7600002 -0.56300002
0.32699999 7.783 -0.565
0.30399999 7.8130002 -0.56800002
0.28 7.8499999 -0.57099998
0.257 7.9109998 -0.57700002
0.22400001 8.0889997 -0.59399998
0.2 8.1330004 -0.59899998
0.176 8.2049999 -0.60600001
0.15099999 8.2740002 -0.61199999
0.126 8.3559999 -0.62
-0.22400001 9.6920004 -0.75199997
-0.25999999 9.882 -0.77100003
-0.29699999 10.09 -0.79100001
-0.31999999 10.29 -0.81099999
-0.36000001 10.496 -0.83099997
-0.40099999 10.7 -0.85100001
-0.44499999 10.937 -0.875
-0.49000001 11.162 -0.89700001
-0.53799999 11.423 -0.92299998
-0.58600003 11.656 -0.94599998
-0.89399999 16.528999 -1.426
-0.676 12.275 -1.007
-0.73100001 12.533 -1.033
-0.78899997 12.829 -1.062
-0.85299999 13.188 -1.098
-0.91900003 13.538 -1.133
-0.986 13.861 -1.165
-1.064 14.31 -1.209
-1.11 14.618 -1.24
-1.189 15.013 -1.279
-1.275 15.474 -1.325
-1.462 16.466999 -1.424
-1.776 16.712 -1.451
-1.824 16.660999 -1.446
-1.88 16.694 -1.45
-1.924 16.389 -1.421
-1.971 16.349001 -1.4170001
-2.0280001 16.388 -1.4220001
2.494 7.6570001 -0.63999999
2.3840001 7.48 -0.61900002
2.369 7.5159998 -0.62199998
2.339 7.5019999 -0.62
2.3110001 7.4959998 -0.61900002
2.283 7.4860001 -0.61699998
2.2679999 7.4819999 -0.616
2.237 7.4650002 -0.61299998
2.2090001 7.4559999 -0.61199999
2.184 7.4559999 -0.611
2.155 7.4429998 -0.60900003
2.1259999 7.4310002 -0.60699999
2.102 7.4359999 -0.60600001
2.085 7.4219999 -0.60399997
2.0539999 7.402 -0.602
2.0309999 7.4060001 -0.60100001
2.0020001 7.3930001 -0.59899998
1.975 7.3839998 -0.59799999
1.949 7.3829999 -0.597
1.881 7.2189999 -0.579
1.874 7.283 -0.58499998
1.853 7.3439999 -0.58999997
1.8279999 7.342 -0.58999997
1.8049999 7.348 -0.58999997
1.776 7.3319998 -0.58700001
1.75 7.3239999 -0.58600003
1.728 7.3309999 -0.58600003
1.712 7.3169999 -0.58399999
1.688 7.316 -0.583
1.663 7.316 -0.583
1.635 7.2979999 -0.57999998
1.607 7.2810001 -0.57800001
1.587 7.2979999 -0.579
1.559 7.2820001 -0.57700002
1.5470001 7.2820001 -0.57700002
1.52 7.2670002 -0.57499999
1.488 7.2270002 -0.56999999
1.457 7.191 -0.56599998
1.444 7.2420001 -0.57099998
1.42 7.243 -0.56999999
1.388 7.2010002 -0.565
1.3789999 7.2129998 -0.56599998
1.357 7.2189999 -0.56599998
1.3329999 7.2150002 -0.56599998
1.308 7.2080002 -0.56400001
1.281 7.1880002 -0.56199998
1.2589999 7.1960001 -0.56199998
1.215 7.079 -0.54900002
1.215 7.145 -0.55599999
1.199 7.1880002 -0.56
1.1339999 7.0739999 -0.54799998
1.114 7.0890002 -0.54900002
1.092 7.0929999 -0.54900002
1.071 7.1059999 -0.55000001
1.064 7.1329999 -0.55299997
1.05 7.197 -0.55900002
1.025 7.1830001 -0.55699998
1.002 7.1820002 -0.55699998
0.98100001 7.197 -0.55800003
0.95700002 7.1919999 -0.55699998
0.935 7.2010002 -0.55800003
0.92400002 7.2030001 -0.55800003
0.90100002 7.1999998 -0.55699998
0.87800002 7.204 -0.55699998
0.85500002 7.2030001 -0.55699998
0.833 7.2059999 -0.55699998
0.81 7.21 -0.55699998
0.787 7.2069998 -0.55699998
0.80400002 7.4650002 -0.583
0.745 7.1409998 -0.54900002
0.676 7.1300001 -0.54699999
0.67500001 7.3499999 -0.56999999
0.63099998 7.1279998 -0.54699999
0.62699997 7.336 -0.56800002
0.62099999 7.3990002 -0.57499999
0.59500003 7.3709998 -0.57200003
0.57499999 7.4099998 -0.57599998
0.55400002 7.4400001 -0.579
0.53100002 7.4520001 -0.57999998
0.509 7.4710002 -0.58099997
0.48800001 7.506 -0.58499998
0.47799999 7.533 -0.588
0.45500001 7.5440001 -0.58899999
0.36700001 7.6830001 -0.60299999
0.345 7.723 -0.60699999
0.33500001 7.77 -0.61199999
0.31200001 7.8080001 -0.61500001
0.289 7.8530002 -0.62
0.26699999 7.9310002 -0.62800002
0.245 8.0019999 -0.63499999
0.222 8.0719995 -0.64300001
0.197 8.1149998 -0.64700001
0.18700001 8.1879997 -0.65499997
-0.119 9.1230001 -0.75199997
-0.15000001 9.2790003 -0.76800001
-0.18099999 9.4320002 -0.78399998
-0.199 9.599 -0.80199999
-0.233 9.7670002 -0.81999999
-0.26800001 9.9530001 -0.83899999
-0.30500001 10.143 -0.85900003
-0.34200001 10.315 -0.87699997
-0.38100001 10.521 -0.89899999
-0.39899999 10.106 -0.85500002
-0.41999999 10.231 -0.86900002
-0.447 10.104 -0.85500002
2.4419999 7.4790001 -0.67299998
2.3789999 7.526 -0.676
2.346 7.5029998 -0.67199999
2.3199999 7.5009999 -0.671
2.2909999 7.4889998 -0.66900003
2.2609999 7.4770002 -0.667
2.2460001 7.4689999 -0.66500002
2.217 7.4569998 -0.66299999
2.1889999 7.4489999 -0.66100001
2.164 7.4499998 -0.66100001
2.1359999 7.4419999 -0.65899998
2.109 7.4349999 -0.65700001
2.0799999 7.4200001 -0.65499997
2.0639999 7.4060001 -0.653
2.0369999 7.401 -0.65200001
2.016 7.4130001 -0.65200001
1.938 7.401 -0.64899999
1.904 7.3649998 -0.64399999
1.89 7.3579998 -0.64300001
1.867 7.368 -0.64300001
1.839 7.3509998 -0.64099997
1.814 7.3509998 -0.63999999
1.79 7.3509998 -0.639
1.757 7.3150001 -0.63499999
1.742 7.3540001 -0.63800001
1.733 7.3699999 -0.63999999
1.704 7.3499999 -0.63700002
1.6799999 7.3520002 -0.63700002
1.648 7.316 -0.63200003
1.619 7.2940001 -0.62900001
1.598 7.3049998 -0.63
1.573 7.3039999 -0.62900001
1.5599999 7.2969999 -0.62800002
1.534 7.29 -0.62599999
1.5089999 7.2810001 -0.625
1.485 7.2820001 -0.62400001
1.459 7.2709999 -0.62300003
1.436 7.276 -0.62300003
1.41 7.2649999 -0.62099999
1.399 7.2649999 -0.62099999
1.374 7.257 -0.61900002
1.353 7.2729998 -0.62099999
1.3279999 7.2680001 -0.62
1.303 7.2579999 -0.61799997
1.278 7.2509999 -0.61699998
1.256 7.257 -0.61699998
1.242 7.2470002 -0.616
1.221 7.257 -0.616
1.1950001 7.2410002 -0.61400002
